ply
format ascii 1.0
comment Generated by the CGAL library
element vertex 700
property double x
property double y
property double z
end_header
1.14612 -0.370874 -2.81461
0.240775 -1.00223 -5.36208
0.310155 -1.18921 -5.18132
0.431771 -1.31141 -4.85895
0.254121 -1.17182 -5.41894
0.287504 -1.50031 -5.32489
0.443976 -1.38589 -4.92975
0.33442 -0.78013 -5.34802
0.575083 -1.37369 -4.6334
0.593169 -1.09479 -4.68915
0.637006 -1.18311 -4.59227
0.380581 -1.23423 -5.35537
0.612 -1.02373 -4.7574
0.566524 -1.4868 -4.87299
0.539524 -1.41437 -4.99607
0.718908 -1.56362 -4.54399
0.513403 -1.44321 -5.21921
0.692603 -1.34037 -4.79598
0.576872 -1.82845 -5.14698
0.611562 -1.4322 -5.13059
0.724478 -1.51176 -4.87579
0.830619 -1.79745 -4.57917
0.832626 -1.59445 -4.67221
0.832362 -2.23575 -4.71489
0.815613 -2.39351 -4.78289
0.643273 -1.73925 -5.38556
0.741919 -2.17586 -5.09334
0.865801 -2.53515 -4.73789
0.90537 -2.29454 -4.69011
0.872816 -2.03827 -4.84966
0.968658 -1.65119 -4.65796
0.976525 -2.31808 -4.59862
1.09254 -2.19426 -4.35781
0.985517 -2.64954 -4.64971
1.1307 -2.20588 -4.32371
0.99036 -2.51274 -4.76522
1.14296 -1.55011 -4.51436
1.09836 -2.35961 -4.58854
1.02272 -2.26741 -4.89045
1.01647 -2.16454 -4.95781
1.21085 -1.87712 -4.47405
1.08758 -2.15456 -4.90818
1.22085 -2.65293 -4.51035
1.3974 -2.20228 -4.09576
1.25463 -2.66727 -4.56439
1.50161 -2.37133 -3.93166
1.3536 -2.5625 -4.37005
1.40824 -2.46324 -4.26345
1.37889 -2.09072 -4.54088
1.38988 -2.5156 -4.53779
1.45055 -2.09564 -4.45002
1.54234 -2.65834 -4.20117
1.70491 -2.24176 -3.82259
1.38538 -2.42368 -4.75087
1.72301 -2.38069 -3.83136
1.60738 -1.98201 -4.24367
1.72428 -2.06853 -3.93876
1.67458 -2.18968 -4.14278
1.67833 -2.71848 -4.14868
1.88737 -2.41538 -3.6249
1.81104 -2.60933 -3.85866
1.70564 -2.74189 -4.18216
1.89274 -2.3646 -3.72923
1.78167 -2.88848 -4.02495
1.82649 -2.42632 -4.02508
1.82064 -2.35456 -4.08779
1.81147 -2.83819 -4.09761
1.90178 -2.09818 -3.9613
2.11348 -2.14787 -3.50427
2.0197 -2.06564 -3.85676
2.25686 -2.43404 -3.17741
2.00912 -2.33457 -3.93268
2.08482 -1.89187 -3.80463
2.14763 -2.41796 -3.71845
2.39085 -2.36576 -3.06906
2.13084 -2.83949 -3.79491
2.25254 -2.66908 -3.50516
2.26579 -2.77187 -3.49386
2.24203 -2.26761 -3.65619
2.31128 -2.06528 -3.51952
2.24657 -2.73273 -3.66696
2.48858 -2.59613 -3.03052
2.54959 -2.41714 -2.91473
2.39487 -2.24944 -3.4505
2.32413 -2.11121 -3.70564
2.30946 -2.72089 -3.71696
2.61299 -2.49978 -3.02862
2.50097 -2.37084 -3.40035
2.58371 -3.00367 -3.13144
2.75219 -2.11547 -2.82696
2.4398 -2.33646 -3.73048
2.66855 -1.75051 -3.18231
2.75048 -2.6277 -2.92625
2.55895 -2.3724 -3.53878
2.54932 -2.26011 -3.61683
2.78467 -2.52364 -2.95441
2.63694 -2.38285 -3.42928
2.71263 -1.83311 -3.31326
2.78103 -1.71683 -3.20734
2.83692 -1.99198 -3.09311
2.99042 -1.84918 -2.70963
2.9073 -2.7406 -2.88439
2.79719 -2.42229 -3.30996
2.97572 -2.6991 -2.80802
2.94655 -1.73497 -3.03742
2.97047 -2.37603 -2.93521
3.15432 -2.33268 -2.45405
3.08516 -1.98886 -2.72777
3.01216 -1.63417 -3.01368
3.18946 -1.7199 -2.57467
3.01596 -1.86339 -3.09104
3.26051 -2.00695 -2.41589
3.12267 -2.63909 -2.77575
3.11141 -2.10943 -2.90531
3.02349 -1.86592 -3.22123
3.30781 -1.62905 -2.47546
3.04118 -1.97416 -3.27261
3.28718 -2.51738 -2.54843
3.34404 -1.34447 -2.63206
3.38457 -2.05812 -2.51233
3.24478 -1.96245 -2.95951
3.33526 -1.81354 -2.75633
3.35542 -2.18652 -2.69494
3.38567 -1.46848 -2.76535
3.46007 -2.22379 -2.50644
3.52977 -2.12837 -2.35648
3.31467 -1.7693 -3.04787
3.33641 -1.72582 -3.02878
3.36527 -1.83884 -2.9718
3.64257 -1.53329 -2.29173
3.74763 -1.64446 -2.01781
3.62127 -1.74356 -2.40481
3.66797 -1.92293 -2.32752
3.64268 -1.87025 -2.48147
3.73612 -1.08027 -2.34186
3.74324 -1.58837 -2.30249
3.72067 -1.41706 -2.42405
3.74366 -1.59237 -2.3768
3.88957 -1.40066 -2.02046
3.87096 -1.0365 -2.15239
3.93217 -1.41619 -1.97327
3.60607 -1.27131 -2.95697
3.91985 -1.41956 -2.08396
3.97983 -1.33902 -1.96004
3.83488 -1.15983 -2.43127
3.76324 -1.10109 -2.68004
3.86417 -1.85572 -2.3456
3.93425 -1.34574 -2.24114
3.82102 -1.07029 -2.63278
3.85375 -1.11066 -2.6109
3.95429 -0.690971 -2.48544
4.01243 -1.20392 -2.3381
3.98258 -0.841265 -2.57784
4.09139 -0.283556 -2.4443
4.10217 -0.411824 -2.43717
4.07138 -0.802956 -2.51896
3.95479 -0.963511 -2.87122
4.25861 -1.06527 -2.03185
4.06348 -0.766916 -2.69748
4.22898 -0.86628 -2.2526
4.24709 -0.593117 -2.34561
4.07578 -0.769171 -2.85207
4.3239 -0.755138 -2.18444
4.33496 -0.979035 -2.24174
4.18074 -0.673241 -2.7536
4.26245 -0.665868 -2.59751
4.30131 -0.787753 -2.54904
4.4628 0.00117422 -2.21534
4.26643 -0.46074 -2.76116
4.30427 -0.387097 -2.69954
4.36089 -0.191895 -2.59808
4.20903 -0.256833 -3.09957
4.60198 -0.217784 -2.02198
4.42952 -0.302438 -2.54199
4.49604 -0.626014 -2.43
4.61007 0.174586 -2.23289
4.43128 0.285712 -2.83092
4.59527 0.143135 -2.38549
4.46241 -0.444035 -2.73622
4.60388 0.641858 -2.53091
4.51298 0.285191 -2.78791
4.45623 0.219921 -3.0563
4.72187 0.360196 -2.39088
4.57437 0.282954 -2.8406
4.52484 0.169878 -3.00706
4.75457 0.522221 -2.42984
4.54725 0.468642 -3.05269
4.70548 -0.215942 -2.5628
4.79351 0.0615715 -2.38107
4.71942 0.407778 -2.70709
4.78023 0.539074 -2.58651
4.79949 0.638336 -2.58073
4.55398 0.215377 -3.27095
4.61576 0.110726 -3.1591
4.90027 0.427291 -2.42171
4.80414 0.483584 -2.74001
4.88443 0.912662 -2.59735
4.72712 1.14233 -3.10948
4.72858 0.829046 -3.10812
4.79709 0.358506 -2.898
4.71584 1.08983 -3.24969
4.91946 1.00304 -2.69758
4.72878 0.821817 -3.25867
4.89908 0.829415 -2.81211
4.85214 0.799746 -3.01854
4.78858 1.2693 -3.29041
4.9664 1.00809 -2.79225
4.74533 0.514563 -3.40489
4.96309 0.660262 -2.87658
4.94999 0.475982 -2.93118
4.99831 1.16257 -2.90855
5.00119 1.21361 -2.98206
4.82009 1.15679 -3.52981
4.87392 0.654228 -3.4719
4.79867 0.796015 -3.74026
5.01621 0.689163 -3.18422
4.85759 1.06751 -3.71677
4.8835 0.781123 -3.64875
4.9867 0.813427 -3.39622
5.07015 1.06031 -3.22408
4.99608 0.786964 -3.44248
4.89434 0.624251 -3.75218
4.82081 1.09439 -4.05254
5.04358 0.674795 -3.40845
5.06719 1.06996 -3.42351
4.90308 0.908724 -3.94912
4.83431 1.16528 -4.32588
5.00321 1.09059 -3.87409
4.92781 0.904337 -4.10604
4.98841 1.00114 -3.98219
4.9916 1.1404 -4.02672
5.1156 1.23779 -3.76021
5.07617 1.67688 -3.95988
5.06884 0.894711 -3.93092
5.21517 1.12618 -3.76774
5.01882 1.1801 -4.44736
4.95537 1.05277 -4.65191
5.06083 1.4143 -4.46789
4.91488 1.25795 -4.9043
4.98884 1.56994 -4.76651
5.30091 1.43261 -3.89962
5.05071 0.922068 -4.59337
5.11647 1.43846 -4.50192
4.99655 1.41591 -4.87918
5.20199 1.13572 -4.30014
5.30335 1.41602 -4.15669
5.23982 1.18043 -4.42526
5.01237 1.5923 -5.15777
5.10487 1.4027 -4.91081
5.25159 1.74332 -4.60686
5.09876 1.26019 -5.10214
5.11207 1.70911 -5.15262
5.30291 1.74648 -4.65084
4.97457 1.31725 -5.57645
5.04101 1.26494 -5.41919
5.10945 1.06988 -5.2402
5.2065 0.776469 -4.96863
5.1575 0.905179 -5.16072
5.13144 1.71582 -5.36404
5.14077 1.02371 -5.29769
5.43342 1.43788 -4.54807
5.29322 1.59 -5.00275
5.32758 1.76043 -4.96194
5.24996 1.13838 -5.15129
5.19911 1.45267 -5.3695
5.41188 1.25988 -4.77942
5.20978 0.860088 -5.34851
5.16739 1.26387 -5.55265
5.1754 1.26931 -5.60642
5.35935 1.57731 -5.1547
5.24784 1.3542 -5.48544
5.2992 0.750079 -5.30918
5.18788 0.88854 -5.68
5.26594 0.858627 -5.49215
5.26417 1.67041 -5.62635
5.25051 1.64638 -5.70056
5.08627 1.19557 -6.232
5.26558 0.653451 -5.69803
5.16777 1.2313 -6.11767
5.32157 0.906891 -5.71884
5.29211 0.941531 -5.84469
5.15485 0.977773 -6.27796
5.19027 0.895897 -6.28175
5.38503 1.02582 -5.77922
5.28816 1.18723 -6.14943
5.24521 0.681106 -6.25298
5.31331 1.37872 -6.21318
5.296 0.57017 -6.20969
5.40359 1.3874 -6.03282
5.19505 0.882732 -6.64649
5.42554 0.529389 -6.0638
5.23654 0.841827 -6.67557
5.34089 0.994482 -6.47127
5.5535 1.03311 -5.98356
5.47059 0.877949 -6.27842
5.29601 0.733427 -6.79775
5.258 0.676836 -6.9757
5.47808 0.293543 -6.34336
5.39952 1.09391 -6.73313
5.56361 1.01062 -6.29408
5.46022 1.07512 -6.67196
5.39818 0.696739 -6.84429
5.56222 0.619309 -6.44401
5.51732 0.198759 -6.56274
5.51173 0.0206008 -6.63461
5.56231 0.372844 -6.64397
5.61157 0.178372 -6.5197
5.7215 0.34222 -6.37671
5.60368 0.140397 -6.76584
5.67581 0.640186 -6.65436
5.5245 0.0816457 -7.13683
5.63475 -0.327039 -6.81469
5.69049 0.395586 -6.77497
5.66301 0.54929 -6.90853
5.59681 -0.0110953 -7.11025
5.56153 -0.0956477 -7.23928
5.52896 0.0245115 -7.42158
5.89883 0.0442802 -6.40759
5.51816 -0.0727059 -7.51741
5.86782 -0.203927 -6.54407
5.72007 -0.286341 -6.99389
5.68525 -0.25236 -7.17292
5.7101 0.326359 -7.20507
5.88635 0.0362339 -6.70813
5.55384 -0.25227 -7.66142
5.61218 -0.13868 -7.58387
5.84103 -0.436388 -6.97415
5.75996 -0.763236 -7.20649
5.98855 -0.433965 -6.62992
5.89328 -0.0599949 -6.98144
5.90308 -0.621635 -6.9284
5.80517 -0.00126776 -7.31512
5.84898 -0.171526 -7.20914
5.89807 0.0416075 -7.13114
5.79589 -0.653047 -7.42033
5.8494 -0.447033 -7.36691
5.71923 -0.793522 -7.73697
5.9218 -1.15312 -7.15723
5.91617 -0.94751 -7.31031
6.05995 -0.453531 -7.06994
5.91118 -0.646321 -7.51029
6.03419 -1.07486 -7.14953
5.99384 -0.918813 -7.35803
6.11308 -0.794402 -7.07014
6.1925 -1.46373 -6.92054
5.97372 -0.91894 -7.64327
6.13504 -0.921107 -7.22121
6.27796 -1.36374 -6.84012
6.25862 -1.64004 -6.97816
6.14085 -1.60353 -7.43187
6.37618 -1.46649 -6.85251
6.18886 -1.01577 -7.47501
6.33452 -1.39548 -7.05518
6.43984 -1.71673 -6.79489
6.40744 -1.86866 -6.90815
6.23963 -1.4208 -7.47472
6.22346 -1.67492 -7.53025
6.5268 -1.67096 -6.70412
6.31495 -1.89034 -7.35926
6.48218 -1.38465 -6.97739
6.42568 -2.00357 -7.10689
6.33456 -1.73361 -7.43492
6.35725 -1.80854 -7.39982
6.3473 -1.79143 -7.46807
6.52798 -2.10589 -6.95577
6.56684 -1.96658 -6.89863
6.51971 -1.22866 -7.1918
6.51905 -2.39612 -7.10055
6.39475 -2.03725 -7.53312
6.47873 -1.80227 -7.39612
6.51059 -1.84721 -7.33824
6.67711 -1.73257 -6.91449
6.68427 -1.93333 -7.02347
6.87029 -2.18459 -6.50305
6.85579 -2.34601 -6.60222
6.80705 -2.39245 -6.81188
6.86903 -2.16194 -6.69908
6.87729 -1.69488 -6.766
6.89489 -1.91759 -6.76679
7.02144 -2.39517 -6.39043
6.97887 -1.93099 -6.67784
7.00877 -2.29852 -6.58934
6.88716 -2.62203 -6.93758
7.12484 -2.23397 -6.3797
7.03352 -2.06666 -6.69676
7.00958 -2.06505 -6.80316
7.11355 -2.85207 -6.49441
7.06046 -2.59958 -6.71207
6.94845 -2.39151 -7.09266
7.35701 -2.31468 -6.0128
6.96843 -2.60237 -7.12598
7.16297 -2.39607 -6.63267
7.2826 -2.18818 -6.35302
7.21005 -2.35166 -6.6554
7.31245 -2.14127 -6.46314
7.38404 -2.64371 -6.24062
7.26665 -2.65005 -6.6125
7.46075 -2.54944 -6.18451
7.40195 -2.37215 -6.41002
7.30269 -2.55479 -6.71038
7.30289 -2.83368 -6.75445
7.50757 -3.11261 -6.21572
7.44326 -2.87878 -6.5772
7.44554 -2.8038 -6.61713
7.53445 -2.84758 -6.43475
7.64526 -2.08405 -6.24266
7.68639 -2.39265 -6.12875
7.74344 -2.56782 -5.98448
7.73007 -2.41435 -6.07779
7.97868 -2.653 -5.45637
7.98789 -2.77864 -5.45397
7.82589 -2.03534 -6.03719
7.88615 -2.2899 -5.9128
7.966 -2.82097 -5.7395
7.98476 -2.86406 -5.75718
7.90409 -2.52696 -6.10092
8.04141 -2.81746 -5.7149
7.96349 -2.8691 -6.00716
8.09664 -3.0173 -5.64898
7.94019 -2.74504 -6.20144
8.19906 -2.13346 -5.60826
8.33948 -2.87502 -5.16274
8.3101 -2.43878 -5.33345
8.14835 -2.72374 -5.9144
8.38449 -3.12166 -5.23466
8.20173 -2.71368 -5.91532
8.29741 -2.9553 -5.69144
8.46447 -2.69009 -5.28306
8.47813 -2.37043 -5.39397
8.47985 -2.05144 -5.4629
8.54862 -2.01825 -5.34658
8.46306 -2.50218 -5.57407
8.72933 -2.28026 -4.91605
8.61331 -2.9135 -5.2136
8.65584 -2.59411 -5.16621
8.59593 -2.10472 -5.42992
8.83775 -2.2341 -4.76415
8.55033 -2.50523 -5.62885
8.72164 -2.76484 -5.14941
8.72011 -2.64971 -5.20468
8.88595 -2.34054 -4.80474
8.95351 -2.63471 -4.6171
8.85954 -2.54518 -4.93298
8.75546 -2.2708 -5.37441
8.83983 -2.39651 -5.19578
9.11383 -2.35197 -4.4578
9.13251 -2.26352 -4.45249
8.97865 -2.39619 -4.91409
8.9966 -2.9101 -4.84319
9.14029 -1.99243 -4.57469
8.90411 -2.41605 -5.23828
9.05336 -1.92801 -4.90568
9.08974 -2.34349 -4.83129
9.04522 -2.5101 -4.97745
9.21302 -2.58247 -4.56703
9.2378 -2.32611 -4.60115
9.132 -2.63401 -4.9061
9.31309 -2.32407 -4.46275
9.36864 -2.23216 -4.35274
9.22167 -2.15587 -4.81818
9.15279 -1.99355 -5.07071
9.32449 -1.74637 -4.68508
9.3103 -2.15287 -4.75581
9.38661 -1.63729 -4.71018
9.30608 -1.73998 -5.00415
9.63024 -1.88914 -4.13945
9.5091 -1.60279 -4.59282
9.47805 -1.49528 -4.80735
9.48118 -1.63593 -4.82062
9.43738 -1.96403 -4.9466
9.56057 -1.73653 -4.697
9.63771 -2.16428 -4.46708
9.82598 -1.60717 -4.069
9.59378 -1.51418 -4.81725
9.80884 -1.71262 -4.29593
9.60453 -1.56037 -4.93334
9.65881 -1.52064 -4.82109
9.79919 -1.66307 -4.44295
9.79165 -1.89461 -4.51439
9.89184 -1.77109 -4.31868
9.82621 -1.3844 -4.62514
9.90901 -1.65436 -4.3968
9.94182 -0.658508 -4.45311
9.80438 -1.16402 -4.82605
9.97804 -0.847713 -4.40461
9.91655 -1.1532 -4.58353
9.84262 -1.32892 -4.81251
9.8649 -1.25997 -4.83271
10.1577 -0.879453 -4.07882
10.0156 -1.09083 -4.4981
10.0413 -1.41448 -4.42659
10.0954 -0.933059 -4.36453
10.1462 -1.35117 -4.21075
10.2871 -0.847038 -3.9035
9.94912 -0.857646 -4.90373
10.1073 -0.983727 -4.51458
10.0516 -1.14315 -4.76951
10.2446 -0.6334 -4.31462
10.0978 -0.629364 -4.77159
10.1138 -0.60501 -4.76652
10.31 -0.484732 -4.25881
10.3102 -0.198844 -4.32837
10.0912 -0.878197 -4.91416
10.1282 -0.530965 -4.99963
10.344 -0.868465 -4.38471
10.1667 -0.391869 -4.98169
10.4636 -0.382647 -4.17429
10.2638 -0.146096 -4.99845
10.2823 -0.204197 -4.97704
10.4333 -0.148872 -4.62881
10.263 -0.377017 -5.12654
10.4592 -0.524025 -4.58904
10.6306 -0.0159343 -4.30928
10.5181 0.0802216 -4.67885
10.414 -0.0893826 -4.99433
10.4655 0.372487 -4.93754
10.5147 -0.48806 -4.73873
10.5296 0.180958 -4.80925
10.4993 -0.0754979 -4.9048
10.4544 0.340509 -5.11735
10.5966 -0.156005 -4.69429
10.3701 0.0502415 -5.43913
10.5748 0.478271 -4.94165
10.7076 0.44694 -4.63556
10.7143 0.490013 -4.73548
10.7349 0.339833 -4.69777
10.6159 0.609584 -5.10532
10.75 0.636254 -4.76406
10.6323 0.0972639 -5.1148
10.6115 0.623645 -5.27141
10.836 0.429701 -4.64752
10.8577 0.231855 -4.60143
10.9211 0.506448 -4.48961
10.6838 -0.0493505 -5.14152
10.6821 0.0142802 -5.19156
10.7584 -0.0272575 -5.00749
10.7716 -0.12792 -4.99631
10.6109 0.61986 -5.61432
10.758 0.834538 -5.25727
10.6424 0.777648 -5.61835
10.7437 0.626501 -5.35047
10.6754 0.454568 -5.56384
10.8168 1.05491 -5.26625
10.7218 0.46565 -5.54679
10.8129 0.088284 -5.32091
10.6446 0.553471 -5.92864
10.7933 0.221117 -5.50543
10.8373 1.08883 -5.51546
10.7225 0.777916 -5.88382
10.8155 0.827981 -5.66249
10.9513 0.423232 -5.26791
10.8954 0.360145 -5.49591
10.801 0.508189 -5.81974
10.9005 1.49684 -5.68514
10.8837 0.8873 -5.70248
10.8575 1.15588 -5.84548
10.8941 0.577511 -5.75192
10.8672 1.06269 -5.9593
11.0294 0.689681 -5.4931
10.7763 0.804612 -6.26524
11.0108 1.40022 -5.73967
10.966 1.28493 -5.93042
10.9255 0.667197 -6.01445
10.9958 0.51315 -5.83492
10.8058 0.75998 -6.44196
10.9603 1.43742 -6.11573
10.9522 0.957846 -6.12294
10.9279 1.03393 -6.23879
10.8872 0.734585 -6.35914
10.9599 0.792071 -6.19634
11.194 1.11661 -5.60355
11.142 1.21872 -5.80128
11.098 1.51722 -5.99805
10.9515 1.03785 -6.4378
11.0081 0.836708 -6.32973
10.8726 1.30039 -6.80614
11.1315 1.49732 -6.12832
11.2075 1.03811 -5.93613
11.0551 1.08583 -6.41372
11.0728 1.73077 -6.47378
10.9535 1.44075 -6.85711
11.0425 0.519247 -6.53791
11.0851 1.33482 -6.54608
11.2441 1.20485 -6.1164
11.1964 1.3563 -6.30734
11.0656 0.60353 -6.63355
11.0908 1.60063 -6.71165
10.9724 1.3268 -7.09437
11.061 1.41283 -6.88962
11.1396 1.51121 -6.71442
11.0474 1.10551 -6.96965
11.0108 0.737869 -7.07076
11.2514 1.15312 -6.46957
11.0519 1.68169 -7.13559
11.0009 0.882747 -7.22922
11.0377 1.1988 -7.19776
11.0865 1.59638 -7.14137
11.2392 0.919255 -6.74388
11.1412 0.683262 -7.03468
11.0566 1.42278 -7.43486
10.97 0.997032 -7.70988
11.1245 1.39866 -7.35271
11.1631 0.881146 -7.26054
11.2511 1.18804 -7.08219
10.9893 1.06134 -7.85204
11.2341 0.857776 -7.16956
11.0584 0.67134 -7.68733
11.1391 1.36843 -7.57355
11.1589 1.6725 -7.58918
11.0423 0.742857 -7.85504
11.1237 0.940054 -7.68338
11.2043 1.5354 -7.55831
11.125 0.899845 -7.78895
11.297 0.986193 -7.34641
11.3257 0.895318 -7.48228
11.2709 0.66076 -7.65003
11.1637 0.528642 -7.97896
11.1704 1.40498 -8.09614
11.2869 0.736577 -7.76487
11.4197 1.09715 -7.46497
11.1829 0.883415 -8.15401
11.2865 1.22831 -7.9352
11.2064 0.47598 -8.117
11.1496 0.500361 -8.31963
11.2702 1.28352 -8.10205
11.4013 0.729172 -7.77993
11.3289 0.657139 -8.2061
11.3824 0.339926 -8.05598
11.2655 0.505102 -8.44579
11.2252 0.837118 -8.6739
11.2418 1.0315 -8.68634
11.2724 0.372429 -8.56309
11.3181 0.542444 -8.48979
11.2957 0.527267 -8.58995
11.3118 0.32497 -8.55944
11.1575 0.456324 -9.05197
11.4563 0.187405 -8.20808
11.2396 0.166509 -8.86123
11.4568 0.779516 -8.34924
11.4046 0.737676 -8.56919
11.4018 0.0568262 -8.53866
11.2684 0.446494 -9.00063
11.526 0.685598 -8.33112
11.3793 0.725566 -8.79183
11.4907 0.615944 -8.57594
11.4926 0.600128 -8.60672
11.2606 0.0068681 -9.23926
11.2599 0.156236 -9.33402
11.5393 0.00988362 -8.5594
11.4103 0.0431772 -9.00666
11.5616 0.281037 -8.64007
11.3594 0.256152 -9.25159
11.3332 0.166699 -9.3543
11.5796 0.0447433 -8.67631
11.5342 0.483861 -8.89303
11.5291 0.228663 -8.91671
11.5738 -0.130319 -8.82502
11.4705 -0.460821 -9.12038
11.6086 0.285073 -8.84854
11.4658 0.165499 -9.28003
11.7072 -0.0857652 -8.67786
11.4877 -0.405071 -9.30544
11.3934 -0.399187 -9.61293
11.6527 -0.74257 -8.87328
11.5327 -0.635023 -9.3034
11.7403 -0.230027 -8.79503
11.4195 -0.363719 -9.7325
11.5462 -0.692047 -9.37252
11.6898 -0.516894 -9.05881
11.5075 -0.684894 -9.59747
11.6288 -0.5001 -9.31051
11.7453 -0.428368 -9.02449
11.6628 -0.79064 -9.25695
11.7344 -0.832033 -9.08603
11.5429 -0.56647 -9.69972
11.6759 -0.838117 -9.32806
11.6709 -0.428829 -9.42642
11.667 -1.08255 -9.44004
11.9138 -0.763372 -8.84829
11.8194 -1.19547 -9.14496
11.8103 -0.843486 -9.2483
11.9519 -0.744392 -8.89401
11.7531 -1.14473 -9.45342
11.6817 -1.01687 -9.70944
12.0047 -0.860439 -8.84423
11.8522 -0.78204 -9.32585
11.7887 -0.807504 -9.54188
12.0086 -0.978605 -8.93389
11.8398 -1.06079 -9.55764
11.7675 -1.19385 -9.78685
11.8657 -0.867938 -9.58157
12.0633 -0.801181 -9.06381
11.9355 -1.00357 -9.59518
12.1201 -1.60115 -9.04
11.8689 -1.44267 -9.81164
12.262 -1.29139 -8.74621
12.1838 -1.51164 -8.98233
12.1013 -1.99051 -9.20178
12.194 -1.61298 -9.01797
12.1364 -2.04743 -9.20923
