ply
format ascii 1.0
element vertex 687
property float x
property float y
property float z
end_header
-0.0816339 1.12801 -0.168971 
-0.0254234 -1.19554 1.34953 
-0.0431534 -0.584347 1.45602 
0.000622637 -1.18247 1.52652 
0.0658371 -1.22582 1.12805 
0.00576071 -0.315918 1.42702 
0.0822122 -1.16439 1.21159 
0.0563562 -0.323132 1.22894 
0.0996494 -0.530111 1.13631 
0.102672 -0.630371 1.58879 
0.142908 -0.793627 1.30088 
0.0992994 -0.122285 1.56307 
0.169827 -0.833546 1.3118 
0.200149 -0.896162 1.2897 
0.175565 -0.42711 1.4394 
0.195427 -0.743214 1.62482 
0.175084 -0.60728 2.02452 
0.217838 -0.715838 1.6439 
0.22712 -0.426834 1.62408 
0.206368 -0.0335256 1.78454 
0.267314 -0.84775 1.78554 
0.250433 -0.183042 1.62463 
0.239118 -0.00158287 2.2411 
0.266193 0.0923623 2.52698 
0.327675 0.178859 2.26714 
0.352606 0.0535564 2.18889 
0.340868 0.250609 2.59461 
0.376008 0.434606 2.05693 
0.392988 0.105117 2.50407 
0.476905 -0.312441 1.75719 
0.483814 0.0493583 1.50331 
0.481827 -0.251714 2.22808 
0.47875 -0.0760792 2.31242 
0.517897 0.287158 2.14717 
0.550235 -0.106987 2.20664 
0.604881 0.115713 1.72391 
0.606191 0.375005 1.65789 
0.572038 0.963917 2.04954 
0.585535 0.59497 2.38768 
0.601796 0.673297 2.25425 
0.641981 0.732623 1.75459 
0.690651 0.294337 1.99912 
0.675708 0.820023 1.93985 
0.731979 0.799594 1.66318 
0.695923 0.841627 2.40502 
0.759153 0.227389 2.38099 
0.799919 0.597062 1.77827 
0.79442 0.933483 1.74798 
0.817225 0.779557 1.93388 
0.857997 0.699505 1.55789 
0.800948 0.956088 2.43213 
0.823681 1.21842 2.22165 
0.837558 0.944612 2.46284 
0.862874 1.27662 1.94166 
0.845171 1.15843 2.54162 
0.869245 1.28038 2.241 
0.906081 1.01661 2.1037 
0.926383 0.935475 2.05765 
0.966593 0.986943 1.76774 
0.926795 1.59057 2.03337 
0.960872 1.74286 1.74572 
0.995625 1.47686 1.64402 
0.945928 1.60695 2.52093 
1.03974 1.10869 1.69211 
0.99854 1.90986 1.79163 
1.04632 1.13055 1.97081 
1.08862 1.11791 1.50588 
1.08361 1.24904 1.66385 
1.11637 1.1352 1.44888 
1.09337 1.1718 1.98615 
1.094 1.39463 1.96582 
1.08674 2.02844 1.67975 
1.10777 1.75275 2.21322 
1.16549 1.43104 1.79565 
1.1887 1.50559 1.55416 
1.17633 2.23662 1.66282 
1.1852 1.70181 2.23358 
1.23382 1.65813 1.69685 
1.26635 1.36379 1.65799 
1.23154 1.55665 2.23561 
1.27327 2.18816 1.77269 
1.30934 1.78084 1.78489 
1.26248 2.2601 2.28263 
1.29944 2.08983 2.05408 
1.41184 1.81855 1.11519 
1.33182 2.21941 2.22069 
1.41351 1.68143 1.82725 
1.40515 2.32181 1.75538 
1.48131 1.60039 1.82852 
1.52703 1.82519 1.082 
1.47268 2.32118 1.68424 
1.52617 2.03829 1.29756 
1.53571 2.37789 1.02261 
1.48488 2.50026 1.92512 
1.5501 1.98217 1.7772 
1.52254 2.57687 1.85477 
1.61863 2.03801 1.02807 
1.57723 2.3541 1.59407 
1.6247 2.44334 1.1515 
1.67526 2.04759 0.919759 
1.6974 2.05976 1.16039 
1.6501 2.63663 1.7748 
1.7086 2.33922 1.3214 
1.75522 2.61927 0.710246 
1.78214 2.33085 0.755794 
1.78221 1.94842 1.32251 
1.72572 2.85137 1.57056 
1.76235 2.9045 1.13395 
1.81938 2.59484 0.715987 
1.8576 2.39875 0.491811 
1.81618 2.50345 1.25998 
1.82229 2.76073 1.11871 
1.85852 2.28922 1.18965 
1.87512 2.44742 0.974386 
1.85615 2.63521 1.30251 
1.88357 2.84915 1.26571 
1.89794 2.97188 1.12017 
1.96366 2.17124 1.03147 
1.97877 2.18073 0.982388 
1.98026 2.27912 1.06707 
1.99099 2.34467 1.03475 
2.00408 2.86533 0.529901 
2.0166 2.83104 0.766803 
2.12812 2.70039 0.112896 
2.0994 2.91046 0.576365 
2.12662 2.84729 0.604774 
2.18664 2.89824 -0.00297365 
2.19143 3.10579 0.329754 
2.2056 3.20748 0.207689 
2.24922 2.68472 0.208636 
2.27531 2.42271 0.242389 
2.21655 3.00701 0.831148 
2.3132 2.47385 0.192695 
2.30061 2.9339 0.15827 
2.33406 2.51827 0.220469 
2.33241 3.17522 0.0248879 
2.39947 2.52004 -0.224174 
2.39176 2.77702 -0.143148 
2.45313 2.5009 -0.0548229 
2.42167 3.26249 -0.0740754 
2.417 3.084 0.374017 
2.52902 2.46555 -0.632492 
2.53115 2.51932 -0.515344 
2.51599 2.57059 -0.11815 
2.52873 2.27733 0.159863 
2.54326 2.43559 0.180644 
2.57495 2.40009 -0.0920097 
2.64251 2.35757 -0.528898 
2.64245 2.27065 -0.03963 
2.70761 2.30194 -0.508582 
2.65336 2.96548 -0.0679981 
2.69662 3.16592 -0.549132 
2.72804 2.52325 -0.237577 
2.73721 2.80938 -0.455436 
2.74156 2.6208 -0.142621 
2.79966 2.31224 -0.376217 
2.83951 2.39604 -0.691155 
2.83127 2.98093 -0.914701 
2.87758 1.92775 -0.45028 
2.85364 2.99192 -0.879347 
2.87844 2.50691 -0.611993 
2.89239 2.77495 -0.686793 
2.88629 2.73835 -0.351144 
2.99436 2.55001 -1.09698 
3.02614 2.68595 -1.33208 
3.07584 2.2564 -1.51781 
3.06978 2.12205 -1.08951 
3.04807 2.1772 -0.590728 
3.08481 2.21365 -1.01313 
3.14596 2.09873 -1.0753 
3.15562 1.9748 -0.909465 
3.20543 1.84115 -1.17686 
3.14646 2.55721 -0.710536 
3.17389 2.65201 -1.03925 
3.23766 2.22384 -1.2496 
3.25591 2.30561 -1.41829 
3.27427 2.49841 -1.28938 
3.293 1.89488 -0.811398 
3.30318 2.52978 -1.37858 
3.33162 2.19939 -1.31729 
3.40927 1.73432 -1.51283 
3.37724 2.10201 -1.14673 
3.44507 2.10009 -1.82935 
3.46383 1.6058 -1.45606 
3.4605 2.05237 -1.62646 
3.49054 1.86613 -1.52592 
3.54955 1.44677 -1.87102 
3.5196 1.58916 -1.1204 
3.50927 2.09543 -1.23525 
3.53648 2.07664 -1.45181 
3.53648 2.08731 -1.25946 
3.60169 1.89 -1.91602 
3.63317 1.80963 -1.93979 
3.66116 1.28792 -1.68861 
3.64437 1.77537 -1.68171 
3.6739 1.69881 -1.88037 
3.66941 1.52882 -1.24059 
3.7027 1.22015 -1.27801 
3.69883 1.81782 -1.38144 
3.74781 1.33499 -1.30187 
3.7789 1.67569 -1.72149 
3.77794 1.5525 -1.38574 
3.78895 1.30229 -1.12114 
3.84906 0.854401 -1.45645 
3.83091 1.59906 -1.26812 
3.88039 1.03694 -1.32366 
3.89649 0.936007 -1.28323 
3.94186 1.063 -1.93091 
3.94156 0.722499 -1.39825 
3.96382 0.597066 -1.43343 
3.96021 0.910604 -1.26959 
4.00056 0.921783 -1.52323 
4.02324 1.16458 -1.71409 
4.07723 0.827025 -2.05669 
4.02749 1.11638 -1.33109 
4.10485 0.551864 -1.83238 
4.04716 1.07152 -1.19906 
4.07148 1.0756 -1.39096 
4.12336 0.502206 -1.4743 
4.14313 0.721498 -1.79883 
4.12318 0.824422 -1.17114 
4.19023 0.39457 -1.23011 
4.22884 0.747738 -1.98496 
4.2527 0.0905126 -1.33542 
4.25443 1.04252 -1.86702 
4.25231 0.52393 -1.13517 
4.30171 0.450765 -1.65628 
4.32614 0.0874985 -1.49928 
4.2955 0.760004 -1.4465 
4.32749 0.346422 -1.36287 
4.38292 -0.0183188 -1.70249 
4.34936 0.825251 -1.76628 
4.40094 -0.193332 -1.21702 
4.43791 0.102897 -1.48587 
4.42096 0.543253 -1.43154 
4.47821 0.303391 -1.91959 
4.43546 0.539791 -1.25584 
4.46654 0.476483 -1.4921 
4.49579 -0.0172288 -1.28796 
4.54511 -0.209549 -1.69396 
4.54209 0.282232 -1.91246 
4.548 -0.0687237 -1.06431 
4.52756 0.302178 -0.887473 
4.55704 0.0736858 -0.94025 
4.64019 -0.389008 -1.63174 
4.61346 0.523243 -1.66823 
4.65437 0.0258063 -1.64777 
4.67859 0.015402 -1.82439 
4.64934 0.0351685 -1.17051 
4.69426 -0.28001 -1.38873 
4.67004 0.374905 -1.42234 
4.76294 -0.64025 -1.33747 
4.75063 -0.432139 -1.13576 
4.77057 -0.0786771 -1.59119 
4.77764 -0.330077 -1.26203 
4.73642 0.0476165 -0.75772 
4.7764 -0.160489 -0.79597 
4.85711 -0.554781 -1.51362 
4.87455 -0.0567223 -1.05352 
4.9276 -0.866945 -0.929589 
4.87977 -0.139333 -0.653201 
4.93221 -0.486372 -0.759036 
4.96328 -0.924603 -0.637122 
4.93676 -0.320939 -0.584872 
4.99424 -0.887413 -0.562079 
4.99842 -0.425151 -0.868095 
5.00819 -0.149667 -1.08542 
5.02603 -0.769631 -0.374737 
5.10387 -0.948725 -1.04909 
5.05299 -0.676087 -0.28939 
5.13059 -1.19874 -0.428993 
5.17807 -1.19539 -0.38456 
5.15904 -0.524408 -0.516836 
5.20734 -1.03258 -0.604938 
5.22153 -0.989257 -0.469059 
5.22974 -0.545756 -0.82186 
5.25321 -0.778942 -0.570934 
5.27331 -1.24369 -0.247396 
5.25694 -0.643169 -0.355271 
5.3002 -1.39278 -0.131812 
5.25956 -0.633512 -0.001186 
5.32917 -1.13941 -0.43384 
5.36113 -1.27364 -0.616496 
5.35098 -0.80481 -0.698493 
5.38729 -1.3429 -0.565421 
5.39464 -1.19245 -0.624488 
5.39368 -0.943917 0.166746 
5.38534 -0.782033 0.348925 
5.46027 -1.01724 -0.225182 
5.4504 -0.892371 0.0167915 
5.44308 -0.700385 0.153827 
5.54128 -1.32763 -0.419683 
5.50027 -0.592788 -0.0571881 
5.5709 -0.952309 -0.240795 
5.51625 -0.878064 0.769014 
5.58213 -1.23552 0.45728 
5.55084 -0.776599 0.72442 
5.63593 -1.1551 0.529202 
5.65686 -1.10314 0.548662 
5.68731 -1.46234 0.605121 
5.66419 -0.455143 0.217308 
5.69701 -0.91621 0.73823 
5.70551 -0.835052 0.726922 
5.73102 -1.096 0.768834 
5.7898 -1.31253 0.233832 
5.76138 -0.718462 0.325782 
5.74673 -0.800212 1.04457 
5.81695 -1.51844 0.804975 
5.82092 -1.32813 0.761973 
5.79622 -0.804943 0.861972 
5.79158 -0.924496 1.25321 
5.80863 -0.453763 0.732416 
5.86309 -0.921106 0.506319 
5.82969 -0.679924 1.0153 
5.92612 -1.08438 0.460201 
5.92236 -1.1616 0.796992 
5.90724 -1.13548 1.2176 
5.89637 -1.08342 1.54525 
5.94619 -1.14025 1.00168 
5.94506 -1.39041 1.46142 
5.94842 -1.18028 1.61201 
5.96706 -0.896614 1.44704 
6.01182 -1.14783 1.17035 
6.03407 -1.18222 1.0484 
6.03406 -0.804806 0.890667 
6.04751 -1.17519 1.23104 
6.07758 -0.946149 0.934462 
6.06947 -0.669886 1.2062 
6.03727 -0.709392 1.96404 
6.08255 -0.361146 1.10656 
6.06134 -0.28322 1.77813 
6.14272 -1.17579 1.52574 
6.13953 -0.7504 1.37344 
6.15967 -0.636198 1.14332 
6.14437 -0.87678 2.02429 
6.20091 -0.813748 1.2583 
6.13651 -0.249794 1.95704 
6.20842 -0.766263 1.49754 
6.17958 -0.362179 1.77777 
6.19316 -0.698992 2.08378 
6.16674 -0.303244 2.33295 
6.2075 -0.157887 1.74201 
6.27786 -0.91996 1.54191 
6.24526 -0.373309 1.74628 
6.26433 -0.457335 1.7228 
6.24014 -0.0580761 2.13543 
6.30824 -0.76357 1.91774 
6.33264 -0.792048 2.16082 
6.31696 -0.476202 2.31374 
6.3237 -0.178612 2.32654 
6.39069 -0.593185 2.25416 
6.3598 0.024132 2.36346 
6.381 0.0401554 2.21025 
6.47416 -0.48343 1.61874 
6.39205 -0.00609461 2.6849 
6.44829 -0.549139 2.50245 
6.46747 -0.235792 2.09769 
6.48645 -0.480215 2.2289 
6.49909 -0.0143294 1.98606 
6.52095 0.0659791 1.7608 
6.55522 -0.204078 1.87343 
6.51077 0.566529 2.25696 
6.60265 0.0225939 1.90822 
6.55545 0.346128 2.5603 
6.58173 0.387706 2.30091 
6.61421 0.381622 2.1902 
6.6405 0.254607 2.09165 
6.60185 0.790005 2.40406 
6.67693 -0.117948 2.26752 
6.68583 0.36641 2.06731 
6.732 0.0495184 2.23598 
6.70088 0.781059 2.24002 
6.73794 0.415598 2.19622 
6.75436 0.313922 2.23214 
6.7195 0.399719 2.91302 
6.70642 0.887987 2.8596 
6.7465 0.593564 2.69942 
6.78907 0.151557 2.64026 
6.75064 1.08044 2.57324 
6.82151 0.629651 2.47293 
6.83993 0.844645 2.17431 
6.84123 0.465496 2.71819 
6.87543 0.611418 2.43464 
6.85843 0.613932 2.90809 
6.87467 1.13383 2.55589 
6.90018 0.770608 2.69566 
6.91079 0.852666 2.852 
6.9296 1.17774 2.44198 
6.9641 0.900105 2.35555 
6.97322 0.665701 2.63554 
6.95654 1.09817 2.69319 
6.97687 1.52852 2.36081 
6.96766 1.55113 2.89246 
7.05273 0.662347 2.57718 
7.01238 1.45961 2.66675 
7.04228 0.942 2.88324 
7.06828 1.44003 2.3952 
7.14174 1.03388 2.00804 
7.12588 1.25287 2.25641 
7.11933 1.45844 2.36799 
7.14713 1.32013 2.25603 
7.12142 1.982 2.23965 
7.14299 2.03068 2.25194 
7.23727 1.26022 1.87819 
7.2099 1.01145 2.75816 
7.22705 1.83699 2.50483 
7.24914 1.84295 2.54953 
7.26138 2.29589 2.12304 
7.31285 1.40014 2.3542 
7.33906 1.49109 2.25139 
7.31991 1.61952 2.63916 
7.30765 2.0291 2.64768 
7.37392 1.39981 2.58921 
7.33925 2.02113 2.75548 
7.42481 1.79947 1.79512 
7.36301 2.49002 2.33126 
7.41573 2.18222 1.98084 
7.41513 1.83452 2.5252 
7.44909 2.02085 2.00412 
7.43883 1.71667 2.66219 
7.46432 1.71628 2.45561 
7.46987 2.3146 2.20044 
7.47952 2.52119 2.05065 
7.51476 1.73099 2.44178 
7.53071 2.36657 2.18657 
7.56631 1.92395 2.23992 
7.54344 2.41732 2.33881 
7.59694 2.16584 1.922 
7.63678 1.99766 1.64517 
7.59284 2.36201 2.2058 
7.65993 2.112 1.56933 
7.64285 2.04865 2.10687 
7.59786 2.79529 2.31945 
7.66094 2.64025 1.65654 
7.63476 2.55602 2.36024 
7.67038 2.50344 2.04082 
7.70861 2.79521 1.55321 
7.69058 2.44922 2.37609 
7.71846 2.59964 2.18981 
7.76381 2.81328 1.66243 
7.77732 2.76206 1.89952 
7.84183 2.31507 1.49261 
7.80983 2.50838 2.02473 
7.8521 2.24729 1.79759 
7.83513 2.87625 1.67223 
7.86056 2.47559 1.84892 
7.84947 3.20005 1.53793 
7.86859 3.18114 1.45146 
7.8875 2.76996 1.74287 
7.85718 3.01331 2.20039 
7.93144 2.98507 1.23677 
7.93502 2.46807 1.87574 
7.97338 2.64412 1.29384 
7.97258 2.91922 1.24658 
7.97191 3.21876 1.78198 
8.01463 3.38699 1.13754 
8.01799 3.11043 1.55038 
8.01749 2.91242 1.9501 
8.0379 3.25692 1.49588 
8.05346 3.34105 1.36815 
8.12315 2.55809 1.40147 
8.15317 2.87041 1.02619 
8.11639 3.33764 1.37358 
8.14881 2.94243 1.43268 
8.15834 2.76815 1.64876 
8.22463 2.8334 0.926625 
8.25216 2.58394 1.12777 
8.27575 2.79117 0.753476 
8.29746 2.96726 0.844496 
8.33815 2.677 0.873174 
8.35091 2.73283 0.817508 
8.3442 2.75703 1.30754 
8.40186 2.76249 1.18647 
8.40202 3.53718 0.646815 
8.46826 2.96857 0.328194 
8.4641 3.36951 0.82272 
8.5117 2.69022 0.909375 
8.51989 3.2353 1.0677 
8.5492 3.55881 0.490473 
8.64099 2.76781 0.176434 
8.67518 2.71936 0.483974 
8.69689 3.03997 0.0317009 
8.69197 2.96659 0.383412 
8.72995 2.76775 0.570985 
8.74452 3.39816 -0.0624684 
8.75574 3.05483 0.287772 
8.74025 3.23656 0.565725 
8.76212 3.44008 0.425374 
8.80267 3.58565 -0.162503 
8.8508 2.5986 0.209341 
8.87214 2.96623 -0.281893 
8.85154 3.0365 0.184611 
8.85353 3.38538 0.0221569 
8.85459 3.10559 0.474955 
8.88562 2.84917 0.423891 
8.96476 2.69033 -0.0879484 
8.968 3.1609 -0.386756 
9.0342 2.81003 -0.507328 
8.98717 3.02609 0.244561 
9.05841 2.65757 -0.345499 
9.02946 3.19422 0.0124536 
9.10091 2.44908 -0.221294 
9.06616 3.30899 -0.0788649 
9.13379 2.83813 -0.310506 
9.12503 3.14414 -0.0567407 
9.20755 2.38512 -0.455064 
9.21464 2.43015 -0.409236 
9.20875 2.69537 -0.365224 
9.23104 2.76801 -0.590109 
9.24382 2.35211 -0.195591 
9.26618 2.98841 -0.757263 
9.27423 2.76327 -0.468986 
9.30417 3.07083 -0.8384 
9.34828 2.42269 -0.522885 
9.39468 2.33286 -0.980023 
9.44838 2.18332 -0.889301 
9.39338 2.8531 -0.239996 
9.47468 1.97226 -0.502421 
9.51351 2.65627 -1.1715 
9.53923 2.29151 -1.03376 
9.55703 2.64831 -1.05264 
9.60541 2.1593 -1.16016 
9.5872 2.7866 -1.06142 
9.60295 2.3316 -0.677319 
9.66219 2.00835 -1.11782 
9.63664 2.69729 -1.1626 
9.63191 2.81258 -0.994013 
9.67613 2.5122 -0.60708 
9.68027 2.56098 -0.517424 
9.72033 2.48079 -0.881791 
9.82335 1.66479 -1.14993 
9.81416 1.9855 -1.10586 
9.82094 1.83415 -0.867522 
9.84751 1.94513 -0.995181 
9.85839 1.86167 -0.887665 
9.89962 1.64261 -1.1382 
9.84547 2.2193 -0.616279 
9.92407 1.86274 -1.33606 
9.92883 1.47191 -0.836538 
9.8998 2.00644 -0.678028 
9.98035 1.7174 -1.49347 
9.97178 1.42363 -0.87253 
9.99434 1.46202 -1.06905 
10.0026 1.6706 -1.19774 
9.96893 2.20031 -0.960591 
9.98841 2.06975 -0.94626 
9.99715 2.00353 -0.820718 
10.033 1.63764 -0.843907 
10.1177 1.45295 -1.82583 
10.1217 1.41438 -1.44859 
10.0639 1.86684 -0.750198 
10.0979 1.70608 -0.939711 
10.133 1.93237 -1.51714 
10.1682 1.35052 -1.32411 
10.1344 1.94111 -1.14289 
10.184 1.13996 -0.972157 
10.1851 1.53651 -1.16577 
10.2361 1.47758 -1.72666 
10.1877 1.73503 -0.992214 
10.2589 1.33494 -1.5511 
10.2262 1.45809 -0.939501 
10.22 1.69183 -0.860621 
10.2738 1.01182 -0.874139 
10.3272 1.11959 -1.63226 
10.3024 1.27399 -1.17877 
10.325 1.13857 -1.20961 
10.3184 1.12145 -0.88494 
10.3294 1.26937 -0.999381 
10.3455 1.75778 -1.5216 
10.3731 1.53237 -1.54726 
10.416 1.24369 -1.75838 
10.4936 1.14895 -1.69937 
10.4956 1.1409 -1.52078 
10.5091 1.01373 -1.21142 
10.5741 0.747772 -1.79871 
10.52 1.31568 -1.26907 
10.519 1.09437 -0.636966 
10.5954 0.824242 -1.40393 
10.582 1.29901 -1.43853 
10.5787 0.990559 -0.68638 
10.6719 0.591475 -1.59907 
10.6775 0.728137 -1.61685 
10.6893 0.309682 -1.20439 
10.7146 0.636878 -1.51846 
10.692 0.544693 -0.66252 
10.7149 1.0118 -1.2733 
10.7464 0.353825 -0.745082 
10.7823 0.286497 -1.05558 
10.8112 0.660502 -1.26992 
10.7935 0.848446 -0.961487 
10.7981 0.641007 -0.634671 
10.8953 0.0104198 -1.18884 
10.8602 0.47216 -0.863962 
10.8969 -0.11453 -0.690059 
10.9276 0.114235 -1.19943 
10.935 0.354048 -1.34514 
10.9691 -0.253369 -0.704933 
10.9575 0.0475171 -0.399432 
11.0202 -0.0625242 -1.09898 
11.0064 -0.128555 -0.409489 
11.0279 -0.0175133 -0.658838 
11.0465 0.0710844 -0.636182 
11.0659 -0.0952283 -0.58613 
11.0688 0.321591 -0.829302 
11.0888 -0.278215 -0.373906 
11.1357 -0.0819203 -1.11211 
11.0682 0.241401 -0.134165 
11.1623 -0.291787 -0.9338 
11.119 0.145103 -0.453927 
11.1411 0.244492 -0.701352 
11.1414 0.159018 -0.420545 
11.1555 -0.120334 -0.177802 
11.2011 0.0388638 -0.455009 
11.2307 0.224078 -0.904901 
11.2516 -0.386894 -0.45453 
11.2829 -0.277247 -0.860212 
11.2432 -0.207367 -0.086252 
11.2649 -0.412234 -0.0368622 
11.3306 -0.447143 -0.855206 
11.2637 -0.0127425 0.00731355 
11.2746 -0.0571112 0.0765413 
11.3971 -0.303253 -0.237545 
11.4188 -0.482567 -0.00958416 
11.4779 -0.808672 -0.242093 
11.5002 -0.604895 0.0148267 
11.4957 -0.503642 0.193266 
11.5364 -1.03195 0.247038 
11.4969 -0.0995971 0.19308 
11.5316 -0.737917 0.448651 
11.5849 -0.946526 0.196835 
11.6027 -0.619955 -0.199228 
11.5608 -0.362172 0.430288 
11.6206 -0.944555 0.229483 
11.6272 -0.351854 -0.240051 
11.6595 -0.818613 -0.111689 
11.6302 -0.746798 0.493521 
11.6779 -0.57224 -0.237637 
11.6803 -0.553764 -0.0902205 
11.6818 -1.00512 0.722291 
11.7162 -1.00531 0.371369 
11.7217 -1.1388 0.613548 
11.7477 -1.01919 0.487304 
11.7557 -0.470213 0.239376 
11.7885 -1.06581 0.483602 
11.7758 -0.414814 0.471752 
11.8304 -0.769327 0.135321 
11.8238 -0.704703 0.383297 
11.8597 -0.964261 0.255667 
11.8897 -0.326387 0.583632 
11.9242 -1.14483 1.21609 
11.8828 -0.291843 1.27015 
11.9283 -0.895262 1.31803 
11.9571 -0.367423 0.755119 
11.967 -0.781472 1.39787 
11.9532 -0.408623 1.46527 
11.994 -0.517155 1.11657 
12.013 -0.993458 1.46926 
12.0293 -0.763633 1.18975 
12.0369 -0.497772 1.01716 
12.0295 -0.605867 1.44184 
12.105 -0.555179 1.19297 
12.0959 -0.433245 1.62807 
12.1159 -0.170332 1.25846 
12.1461 -0.726132 1.50688 
12.1178 -0.314751 1.77108 
12.1615 -0.527963 1.47564 
12.1687 -0.203128 1.25249 
12.1703 -0.624088 1.8317 
12.202 -0.915919 1.80293 
12.195 -0.101455 1.3403 
12.2311 -0.601587 1.44002 
12.2263 -0.137836 1.48071 
12.2134 -0.446996 2.18477 
12.265 -0.771988 1.86918 
12.3027 -0.892501 1.98731 
12.333 -0.790105 1.60444 
12.2807 -0.282883 2.36518 
12.3392 -0.430229 1.76931 
12.3363 0.0909848 1.52061 
12.3202 -0.30671 2.36166 
12.3428 0.021656 2.09083 
12.381 0.222129 1.68988 
12.3849 0.0639377 1.98201 
12.3679 0.00692926 2.51187 
12.4031 0.0710813 2.08813 
12.3853 0.071597 2.57648 
12.4009 0.0323181 2.56472 